541
-0.077344 0.119067 0.051823 -0.5466639502601073 -0.1641398423386773 0.8211069587106478
-0.0905232 0.122929 0.0450175 -0.7575145177722172 0.10238865700271363 0.6447389535940153
-0.0780694 0.106243 0.0333548 -0.7569330506776198 -0.06413427083211887 0.650337721569881
-0.0705399 0.100871 0.0399167 -0.36758392587918925 0.3961934499345613 0.8413755449644309
-0.084428 0.138004 0.0455627 -0.5825334699259299 0.5005473486488724 0.6403960557160231
-0.0833338 0.121705 0.0492392 -0.16019695786776017 -0.11340429245835279 0.9805490304630031
-0.0816426 0.140732 0.045535 -0.5016186748593684 0.5863954805305436 0.6360181172306999
-0.0821005 0.0885236 0.0320901 -0.8094619098116064 0.012612068763054088 0.5870369258280631
-0.087216 0.0937177 0.0257149 -0.8595971603050585 -0.00029183349789319035 0.5109722466325242
-0.0776345 0.165887 -0.0268309 -0.849502644305782 0.4522727793644424 0.2716515973879895
-0.0165401 0.0997826 0.0440769 -0.233149187765006 0.47970934779022223 0.8458843880148147
-0.0485608 0.164 0.00493162 -0.27172536496715 0.6597629527380388 0.7006269850839701
-0.0890267 0.148493 0.027289 -0.7450190938377288 0.5292408047339731 0.406018128193491
-0.0830867 0.0803012 0.027553 -0.8526863742827245 -0.4359455627821156 0.2878843750590954
-0.0835093 0.13127 0.0505027 -0.5927200779067081 0.2906111905760787 0.7511511466796945
-0.0668526 0.0914559 0.0435065 0.0 0.0 0.0
-0.0264927 0.0850795 0.0502634 -0.8327336980294104 0.12199480537965632 0.5400665288893975
-0.0761087 0.083292 0.0375324 -0.547069308693253 -0.3059701758076186 0.7791645673425744
-0.0252475 0.0736694 0.0465167 -0.8261404197532759 -0.3500934983441702 0.44150486890522705
-0.0812551 0.10738 0.02923 -0.7862773003066179 0.13100995524100698 0.6038248079122668
-0.0887381 0.139163 0.03848 -0.8904753591259832 0.27456948783055996 0.3628570395374954
-0.0718916 0.0995338 0.0398851 -0.461313058620048 0.3741740213863139 0.804477509733001
-0.0186351 0.0933648 0.0534492 -0.391652022494074 0.5614349690736916 0.7289715143800369
-0.0195177 0.0933631 0.0529187 -0.44774799640798657 0.5764289675584822 0.6835578812888459
-0.053047 0.162457 0.00378602 -0.5063278280497189 0.8054909157634121 0.30792290458014665
-0.0258496 0.0864897 0.0509722 -0.8433056717547085 0.1588115656322831 0.5134339593441041
-0.0253123 0.0865272 0.0518462 -0.8313254374087999 0.1874792845330373 0.5232107940286094
-0.0735922 0.0833012 0.0392631 -0.5396509675066781 -0.25140898666995 0.8034739290672072
-0.0763221 0.159003 -0.0110053 -0.8366968558237816 0.4394315655592742 0.3268612406583613
-0.0561893 0.159558 0.00559608 -0.49049366745158035 0.7942005362595446 0.35869411814936447
-0.0608279 0.0910686 -0.0191968 -0.32566128922221255 0.03463562466960365 -0.944851892206325
-0.0649074 0.120907 -0.00883756 0.03186820203436233 -0.0031120518217385364 -0.9994872349522809
-0.0460801 0.153165 -0.0063697 -0.2926843725452593 -0.4666799109088848 -0.8345931456834901
-0.0729406 0.0676849 0.0243239 -0.5316355847080194 -0.7996355105569772 0.2791892822592671
0.00714876 0.108764 -0.0200496 0.13096834266188762 0.09810435411818096 -0.986520566903424
0.00812607 0.108726 -0.0199063 0.20252957642137936 0.1266659726307919 -0.9710496908253832
-0.0679008 0.1038 -0.0147014 -0.4406631286302874 0.3509331171622915 -0.8262335955070602
0.0101223 0.108705 -0.0195083 0.1918176091623436 0.1308151741030156 -0.9726733239066652
-0.067283 0.17966 -0.0595334 -0.3367513714469939 0.5122761814854492 -0.7900453326937992
-0.0698932 0.103728 -0.0136756 -0.4340568938137342 0.3493239895210081 -0.8304019287537208
-0.0610115 0.132585 -0.00747053 0.26468379371712253 0.18007410576174593 -0.9473731080084653
-0.0776442 0.112189 0.0467134 -0.176668698080617 -0.6844836236736888 0.7072979146307697
-0.0729374 0.129655 -0.00843737 -0.21330715699486702 0.18861820575033125 -0.9586048347647184
-0.047823 0.0912927 -0.0217091 -0.04680724007430832 0.10838503024747431 -0.9930064287278709
-0.0488158 0.0912881 -0.0217052 -0.013538387601550204 0.06252973291357308 -0.9979512736416078
-0.0538207 0.0913026 -0.0221948 -0.007640644607195463 0.07070224056498203 -0.9974682018636374
-0.0528115 0.0913061 -0.0221889 0.0748153130913676 0.06915910561146081 -0.9947963042945343
-0.0548296 0.0912974 -0.0221769 -0.06728655830976904 0.08090785035649337 -0.9944478059815494
-0.073291 0.0682485 0.025526 -0.5226465793647033 -0.8108821085385132 0.26326936610724344
0.0131167 0.108671 -0.0187213 0.30709730268517227 0.1819477376526142 -0.9341232613775268
-0.0648315 0.0895741 -0.0187043 -0.35265180178507377 0.0916009078718597 -0.9312604256462272
-0.0883414 0.120307 0.04718 -0.6178317867533574 -0.05713392530056133 0.7842318521055517
-0.0598098 0.08825 -0.0201729 -0.5392653000745977 0.05805663102171997 -0.840132348936679
-0.0817245 0.100671 0.0313188 -0.6819293295019356 0.25550183477847727 0.6853402089399631
-0.0728742 0.149812 -0.0379734 -0.8203219288986011 -0.5152739777554062 -0.24812226989167985
-0.0629203 0.122369 -0.00879811 -0.040550872453826214 0.027723473828622856 -0.9987927891920861
-0.0821974 0.128571 0.0521036 -0.5185046926112348 0.033877312051101345 0.8544034243074646
-0.0890869 0.135136 0.0402764 -0.9086709649637889 0.24192474447346288 0.34027855566172016
-0.0837407 0.129905 0.0507752 -0.6155917504413034 0.18255979286870283 0.766628148985118
-0.0853379 0.139291 0.0436042 -0.662564034969764 0.488214158183346 0.5680280233526442
-0.0203318 0.0946383 0.0508766 -0.4749926813636542 0.7234730447535218 0.5009677695880591
-0.0484493 0.0656843 0.0374132 -0.5158280837177935 -0.4610481786289969 0.7220498355590931
-0.0475728 0.0656919 0.0379498 -0.49344806472226643 -0.42510138674971937 0.7588134279289708
-0.0467618 0.0657183 0.0385512 -0.5391291740287384 -0.32710330080409217 0.7761077014913317
-0.0459114 0.0657109 0.0391289 -0.5639620521131826 -0.22891101528483435 0.7934396957914033
-0.045045 0.0657131 0.0396946 0.0 0.0 0.0
-0.0441667 0.0657175 0.0402548 -0.5130658216002252 -0.09910616613070128 0.8526086033700104
-0.0458377 0.0970756 -0.021885 0.06748309076394017 0.07515492967010325 -0.9948858070186888
-0.0859779 0.129848 0.0487451 -0.7607824277236228 0.14680050940694253 0.6321864504280464
-0.0258745 0.104437 -0.023108 -0.04463601475198576 0.3525191439507967 -0.9347394713690323
-0.0892353 0.14446 0.0304266 -0.8902017861118323 0.25278352302455764 0.3790003568475847
-0.087924 0.1365 0.0420055 -0.8380417743800155 0.299425742826999 0.4561032875637873
-0.0875622 0.147255 0.0314849 -0.7849109898443315 0.49225595841286235 0.3762961724873453
-0.0745333 0.0805197 0.0374668 -0.5833348718451413 -0.37432380209928673 0.7208343210969818
-0.0771042 0.163136 -0.0202013 -0.8824245820161375 0.40696239127100364 0.2360264162008813
-0.0782836 0.0860139 0.0367982 -0.6837832171271168 -0.13849391097525807 0.716421627673305
-0.0195579 0.0946763 0.0515134 -0.4574243671078179 0.7078138757813877 0.5382958904054002
-0.0838556 0.139345 0.0449552 -0.5432200443211569 0.5498349057714671 0.6345026082239553
-0.0264494 0.0648769 0.0395324 -0.7586892297575706 -0.18508205079339177 0.6246081068349791
-0.0259181 0.0649186 0.0404266 -0.8367002428160802 -0.20222056028221444 0.5089592799730246
-0.0254003 0.0649585 0.0413183 -0.8210340946816651 -0.22408288672449975 0.5250617823146851
-0.0248108 0.064983 0.0421327 -0.7970495346044786 -0.25337132993685957 0.5481924922441123
-0.0242622 0.0650295 0.043001 -0.8092530098965657 -0.2927929357680165 0.5092954572128986
-0.0237291 0.0650733 0.0438813 -0.8046782848414836 -0.3147643611319266 0.5034046631347171
-0.0231964 0.0651165 0.0447582 -0.80705296577677 -0.3341552748009453 0.486832376443499
-0.0227042 0.0651451 0.0456598 -0.8129259359313854 -0.34111546251135616 0.47200811849558755
-0.0221975 0.0652175 0.046591 -0.8083414421607472 -0.33664572665257636 0.48296352617153443
-0.0216757 0.065257 0.0474751 -0.8070717079748199 -0.33132058968530304 0.48873502538409336
-0.0211412 0.0652998 0.0483526 -0.7976983241448218 -0.33799640655152263 0.4994354941479435
-0.02061 0.0653432 0.0492306 -0.7886046689551216 -0.3607891086540739 0.497929608658475
-0.0200798 0.0653829 0.0501099 -0.7675991794602726 -0.3809151329006013 0.51545626508874
-0.0194961 0.0654004 0.0509321 -0.7001885743515895 -0.3878446918706278 0.5994267722877135
-0.018787 0.0654231 0.0516453 -0.5951860874266324 -0.3917504803419014 0.701630303283479
-0.0179879 0.0654395 0.0522544 -0.5625219600443824 -0.34209098892294343 0.7526903744339692
-0.0171808 0.0654583 0.0528522 -0.5614962204616621 -0.2877998429960437 0.7758177909655858
-0.0814882 0.139397 0.0468344 -0.5063136040375874 0.5499639774191044 0.6642184564643082
-0.0851043 0.10321 0.0261425 -0.8054751519622669 0.31627832457244387 0.5011764170200059
-0.0264348 0.0891318 0.0486594 -0.7922107650328178 0.35305288528841544 0.4977507046259628
-0.0128318 0.0653357 0.0541739 -0.4646276356770653 0.1686963362745922 0.8692886208231821
-0.0854828 0.0924603 0.0282645 -0.7932465538951452 -0.06404797428931963 0.6055227177595496
-0.0882111 0.0936365 0.0238814 -0.9054163296172018 -0.0033744386733056773 0.4245113464044921
-0.0648058 0.0881399 -0.0188881 -0.2391653601584799 0.09280188497892393 -0.9665338797189796
-0.0683872 0.0690317 0.0328821 -0.4198280632503611 -0.7295677517910417 0.5398845180721669
-0.0797185 0.0803984 0.0327643 -0.6777367219929447 -0.4438743044158853 0.5862154361167676
-0.0436341 0.171062 -0.00299049 -0.5499297214003035 0.8184540418423407 0.16646405892119917
-0.0088954 0.108786 -0.0222808 -0.17237852672838008 0.3094247208159291 -0.9351694956909884
-0.0767129 0.161805 -0.0163426 -0.8332181383806678 0.46643609872235137 0.29695942430259203
-0.0882102 0.118977 0.047099 -0.6136645952304602 -0.18132772733740127 0.7684634147825702
-0.0258097 0.0766327 0.0484243 -0.8380262157551673 -0.4126947519172683 0.3569245066495408
-0.0886752 0.135106 0.0413889 -0.882337441786594 0.25515128517127206 0.3954471652407397
-0.0927055 0.120137 0.0415853 -0.943092355700879 -0.12596687800944414 0.3077485243882101
-0.0266978 0.0917701 0.0460149 -0.6778484413948949 0.47517362759977233 0.5610093708060363
-0.0820753 0.129944 0.0519532 -0.5059956049680393 0.20325817380064778 0.8382449299198019
-0.0832204 0.140695 0.0442806 -0.5230809583891017 0.5712370344479172 0.6325144752856555
-0.0809796 0.0788834 0.0298322 -0.7050672045899584 -0.5571906869773511 0.4386556455323574
-0.0770334 0.158982 -0.013085 -0.9312581357626802 0.295702893958241 0.21288044316126997
-0.0249592 0.0767123 0.050372 -0.8219647864754117 -0.40808433960519414 0.3972921614673809
-0.0212185 0.178615 -0.022031 -0.5984143003653732 0.027198074056387748 -0.8007250401266618
-0.00588737 0.108814 -0.0225516 0.09309753493242258 0.22625320994695217 -0.9696093718494097
-0.0878486 0.143233 0.0360974 -0.8050138484467696 0.4777425303322256 0.35173111679333113
-0.0254054 0.0766649 0.0494071 -0.825544587265584 -0.4084885373826641 0.3893754605306665
-0.0485411 0.166778 0.000587101 -0.6192693749442946 0.747130261255988 0.24145768567527895
-0.0753773 0.0887668 0.039456 -0.5628501888466921 -0.04688697707226435 0.8252280147306367
-0.0718069 0.0887788 0.0415418 -0.3752345300536205 -0.1071364817069597 0.9207175580724486
-0.0814909 0.0788596 0.028943 -0.7060360794294147 -0.5850639782019084 0.39901528285831117
-0.029166 0.0762862 0.0418904 -0.7757683844824352 -0.36274835377046144 0.5163303646642646
-0.078334 0.175787 -0.0461739 -0.8482742311425181 0.48603244669210083 0.2102457836487095
-0.0772387 0.158974 -0.0142914 -0.9479667111047129 0.25050312237786226 0.19648740498122474
-0.0707931 0.0879477 -0.0165704 -0.34131772153148876 0.08395075229653191 -0.9361914783618783
-0.0779251 0.168693 -0.0322923 -0.7680009698271678 0.5739357525285275 0.28420461346368503
-0.0255118 0.0931431 0.0461963 -0.651218822179861 0.5966514655255694 0.46895743338267365
-0.0244166 0.0931902 0.0479432 -0.6449331502936119 0.6082796207096371 0.4626630898199006
-0.0789031 0.0913518 0.0358575 -0.7421914841791201 0.12680681869311083 0.6580819337627554
-0.0263933 0.0864552 0.0500994 -0.8317794235880737 0.17019242521833827 0.5283725285192182
-0.0212315 0.0839098 0.0563274 -0.4634367242852544 0.08148548134120781 0.8823754976847128
-0.0245236 0.0838729 0.0539551 -0.7757202109992463 0.1454106081122144 0.6140960098353685
-0.0251232 0.0838362 0.0531591 -0.8454017210695002 0.1025504181931452 0.5241939924695228
-0.0802884 0.146109 0.0411929 -0.44956954009087347 0.6671819393550366 0.5939322254440593
-0.0894571 0.131034 0.0422704 -0.8651078784710422 0.27069867822745064 0.4222683793670132
-0.0578363 0.0912193 -0.0212351 -0.4849115696886777 0.06588742356701509 -0.8720777585730319
-0.0588327 0.0911696 -0.0205864 -0.5841741012524592 0.10000937221477137 -0.8054431978079453
-0.0618121 0.09105 -0.0190303 -0.12766382755849395 0.029443847129130233 -0.9913803543541457
-0.0628225 0.0910404 -0.0189489 -0.09157018462415056 0.030270083181512406 -0.9953384466361596
-0.0638273 0.0910291 -0.0188305 -0.17972991429744975 0.05452529766025734 -0.9822037211402184
-0.0648099 0.0910089 -0.0186372 -0.31095221151535757 0.0651149384325183 -0.9481923681124194
-0.065807 0.090969 -0.0181206 -0.4790196369821037 0.09250360116997662 -0.8729165316089045
-0.0518084 0.0913012 -0.0220555 0.14022869283747444 0.041216049599728126 -0.9892609114690047
-0.0508009 0.0912872 -0.0218676 0.17829601522482058 0.031521373113251774 -0.9834718775806485
-0.0498121 0.0912811 -0.0216901 0.06523287635032579 0.049565024638794426 -0.9966383397078494
-0.0458215 0.091313 -0.0218951 -0.14881428104319855 0.07113334196412563 -0.9863033800097264
-0.0448194 0.0913346 -0.0221278 -0.23428026150270428 -0.021489847041940686 -0.9719315539400593
-0.0468292 0.091298 -0.0217206 -0.07618097674139471 0.12225102840368143 -0.9895711924045533
-0.0865836 0.11378 0.0451954 -0.5130755161352056 -0.6291531150382349 0.583883440919742
-0.060057 0.135486 -0.00665791 0.3024467005152452 0.1175719652909893 -0.945887322213939
-0.0520933 0.154615 -0.00405641 -0.5399739785223238 -0.0627340052908247 -0.8393405429853509
-0.0568824 0.10976 -0.0175883 -0.25115881743645907 0.28412143068916834 -0.9253076575102248
-0.0671562 0.0724925 0.0371747 -0.32672705210981146 -0.5626101583026711 0.759420333671858
-0.0629025 0.103986 -0.017642 -0.37174886939632834 0.31114232191859725 -0.8746389161326265
-0.0649207 0.122383 -0.00889091 0.058181621163984995 -0.027222163714867572 -0.9979347938424692
-0.0668128 0.0894987 -0.0177562 -0.47183300906788284 0.1492691302538944 -0.8689604929495893
-0.0187732 0.0946942 0.0521396 -0.4182349755659383 0.6919471429025198 0.5884629611474276
-0.0826303 0.103323 0.0293175 -0.7146757466504432 0.2769130198944352 0.6423065907824517
-0.0732964 0.0791377 0.0376894 -0.5696354558798397 -0.3935661881404832 0.7215407839873899
-0.0761165 0.0874143 0.0388159 -0.571146648453627 -0.1281771036464944 0.8107787220080365
-0.0257486 0.0365571 0.0540093 0.0 0.0 0.0
-0.0830551 0.128552 0.0515383 -0.6029119876191367 0.04177218002079398 0.7967133864580488
-0.0592291 0.156682 0.00368263 -0.7469365560912206 0.6320441927799052 -0.20641201405873866
-0.0881508 0.144556 0.0335371 -0.856530787542395 0.4127333581321336 0.3098486486608855
0.0191769 0.0959952 -0.0230407 0.22972588027994892 0.26762980833909233 -0.9357351685268558
-0.0178219 0.0896296 -0.0373512 -0.09842645502600772 0.45746086139117376 -0.8837656891089734
-0.00286572 0.104506 -0.0226523 0.13479786443261688 0.1945930949345844 -0.9715776156067952
-0.0481378 0.0672057 0.0386531 -0.42959145503611873 -0.47186870826077987 0.7699292850153536
-0.0472854 0.0671503 0.0390298 -0.39957948604701343 -0.44722390488753455 0.8002043571660616
-0.0462738 0.0671086 0.039469 -0.43568521730719006 -0.3797322645206193 0.8160770788975935
-0.0321193 0.0366883 0.0508235 -0.5641686059631467 -0.2947290176721027 0.7712642803784169
-0.0443984 0.0671335 0.0404051 -0.4061050566896004 -0.2610092725845111 0.8757584384726423
-0.0178266 0.0947205 0.0526193 -0.3498817533439772 0.676653365265096 0.6478603105240858
-0.0772403 0.0846603 0.0372078 -0.5767655190106176 -0.2603632694920489 0.774307757923052
-0.0857101 0.0869161 0.0258492 -0.8312213260526135 -0.35373657294536665 0.4288840683403875
-0.0832007 0.119017 0.0492012 -0.0033860158420332 -0.08933167152393376 0.9959961783859702
-0.0877346 0.144562 0.0345528 -0.8095618971057685 0.4684609773302625 0.3537708968715268
-0.0874124 0.136542 0.0428952 -0.8133423749415616 0.33161578722860174 0.47802212374028774
-0.0880121 0.147225 0.0305337 -0.798900357406141 0.4596993153344243 0.38785919921719236
-0.0885789 0.0922253 0.0228661 -0.9205942705223299 -0.08159498098296229 0.381901097353555
-0.0767597 0.163153 -0.0191399 -0.8271216104098554 0.4892652606904573 0.27656707373529915
-0.0830162 0.0939316 0.0314035 -0.7469137563378191 -0.05043133324825935 0.6630056720874504
-0.0401353 0.162183 -0.0119788 -0.4441898163892405 -0.09569199308374624 -0.8908077511313837
-0.0877344 0.132461 0.0447656 -0.8663822797883736 0.24079664012401267 0.43749139805679277
-0.0261594 0.066324 0.0406106 -0.8434398049518438 -0.239732376947105 0.4807678055632331
-0.0256808 0.0663835 0.041558 -0.8335988831562512 -0.26985780625972455 0.4819643829178039
-0.0251661 0.0664206 0.0424455 -0.8181609113930529 -0.2920147187117761 0.49531820794734727
-0.0246581 0.0664552 0.0433381 -0.8241690748987356 -0.31585690960201207 0.4700848313200805
-0.0241603 0.0665253 0.044272 -0.8113736040191896 -0.3352191811107169 0.47885381413994343
-0.0236293 0.0665652 0.045154 -0.8067966358524278 -0.33434284729485175 0.48712836998062087
-0.0231138 0.0666037 0.0460408 -0.8100471311677998 -0.3231859651246749 0.489259110526569
-0.0225837 0.0666453 0.0469216 -0.8124583088810459 -0.33064519474542353 0.4801929315617964
-0.0220763 0.0666765 0.0478151 -0.809466766706426 -0.3480618651705173 0.47288105440149003
-0.0215751 0.0667511 0.0487462 -0.8044413355206835 -0.35636999790514656 0.47526262455487156
-0.0210692 0.0667823 0.0496379 -0.8006959962575775 -0.3583373202787406 0.4800836244577987
-0.0205507 0.066817 0.0505282 -0.7790041292845908 -0.36739506095786734 0.508107700927
-0.0199636 0.0668339 0.051351 -0.7120701236098127 -0.3774653176395273 0.5920101967378574
-0.019299 0.0668878 0.052102 -0.5936200712105626 -0.36213319313277786 0.7186617851864845
-0.0184257 0.066889 0.0526426 -0.5045120986989994 -0.35994798409626955 0.7847961461496628
-0.0175551 0.0668893 0.0531861 -0.49967729633118 -0.32825320975026906 0.8016061563010903
-0.0166742 0.0668915 0.0537111 0.0 0.0 0.0
-0.0748456 0.159073 -0.00827714 -0.6011861273848086 0.6795446873227047 0.42046909300392615
-0.087722 0.128407 0.0462822 -0.8064684582856807 0.16319349274208414 0.5683102231325392
-0.0927955 0.121487 0.0416389 -0.938410307587917 0.03264299096674112 0.343977513441644
-0.0117936 0.0667192 0.0544625 0.0 0.0 0.0
-0.0528912 0.109829 -0.018387 -0.1664169970439486 0.32136610791799786 -0.9322173607997827
-0.078061 0.117721 0.0511362 -0.5254557470562148 -0.30880685681662184 0.7928017299858986
-0.06794 0.126772 -0.00890268 0.04200489050727984 -0.06510894091999579 -0.9969936885385724
-0.0287411 0.0366033 0.0533099 -0.37573547283526465 -0.46321781157396275 0.8026531713597654
-0.0830364 0.104646 0.028271 -0.7331860507439248 0.3039996856003497 0.6082946704923654
-0.0830074 0.117688 0.0489709 0.010964106551048023 -0.2537301402583512 0.9672129053584917
-0.0842691 0.117693 0.0488129 -0.18122949421478698 -0.32420966653236916 0.9284632262796532
-0.0779175 0.0954136 0.0361479 -0.6678838257552547 0.07404493448767055 0.7405731179102041
-0.0658161 0.0866791 -0.018673 -0.3582443501769574 0.07635571634717188 -0.9305002902457364
-0.0807235 0.116228 0.0481624 -0.15586948006764278 -0.39841979231126423 0.9038619221308595
-0.0923057 0.12017 0.0426167 -0.8887120263544481 -0.1151879642640251 0.44375969521992464
-0.0765127 0.164562 -0.0208538 -0.7763519392552216 0.566493698524297 0.2763377570056609
-0.0866887 0.120341 0.0484058 -0.5094962806167845 -0.044060520807062874 0.8593440583048637
-0.0824451 0.140729 0.0449221 -0.5118144931061758 0.5803765412228927 0.6334106054090193
-0.0169961 0.094658 0.0531741 -0.3696794091536088 0.6684642145075687 0.6453624782791592
-0.0277489 0.0877005 0.0471838 -0.8658328244199676 0.18290088241067085 0.4657046138598368
-0.0256851 0.0824232 0.052338 -0.8647934858567012 0.033711703438877715 0.500994758326936
-0.0248582 0.0752289 0.048914 -0.8197764376970869 -0.4206496713086373 0.3886134920774237
-0.0833358 0.105954 0.0271122 -0.7734431871239392 0.3425253128079206 0.533349834890196
-0.0743965 0.149892 -0.0310959 -0.9166632910643008 -0.39822297101865456 -0.0338655602085785
-0.0723907 0.151114 -0.0412874 -0.9354703825510199 -0.2252811189681663 -0.27229318905602357
-0.0763319 0.15494 -0.00387485 -0.8725419031776815 0.47692768680564973 0.10588016224619894
-0.0213294 0.0783028 0.0551779 -0.40040331255582584 -0.4504593517425326 0.7979746610776678
-0.0866523 0.0868042 0.0239447 -0.841389056646764 -0.36297017332385906 0.40039618958266376
-0.017215 0.175671 -0.0245809 -0.5267828492104314 -0.24893577410922219 -0.8127304658657641
-0.0766234 0.167356 -0.0265012 -0.7318312293680634 0.6063815840967844 0.3110055082951157
-0.0728932 0.0941961 0.0410307 -0.5282593658525944 0.139126691668666 0.8376071907847656
-0.0769618 0.103489 0.0349575 -0.6724441131742506 0.20651970670468325 0.7107520843443987
-0.0908997 0.126938 0.0424248 -0.8346606783352422 0.36078409451006554 0.4161446733883606
-0.0903999 0.124268 0.0448512 -0.7476228567685648 0.20161222929019584 0.6327816155972354
-0.0809093 0.0912865 0.0336272 -0.7435661984038245 0.02749697084933805 0.6680967184363314
-0.0866695 0.135213 0.0450386 -0.7861483028520676 0.3280850411730875 0.5237662185376863
-0.0766812 0.154876 -0.00631355 0.0 0.0 0.0
-0.0269434 0.0864227 0.0492292 -0.8468202593605818 0.19231773199794383 0.4958924664638937
-0.0706477 0.0874116 0.0418374 -0.4026010619637234 -0.04553747710089305 0.9142421577924351
-0.0221672 0.0839099 0.0558332 -0.4939729624807556 0.09066657710509016 0.8647371185129228
-0.0669681 0.132599 -0.00847972 0.051037889396613474 0.1611060550338251 -0.9856165445432504
-0.0825915 0.143398 0.0421649 -0.498914469460566 0.6194291394176398 0.6061286112725617
-0.084679 0.0869987 0.027663 -0.8428617045007425 -0.2196173820629371 0.4912762487459832
-0.0765591 0.0818865 0.0366215 -0.5690630818453261 -0.3721114171810137 0.7332805070941388
-0.0753069 0.109577 0.0422017 0.09013949595798762 -0.9607514789421031 0.262357517481397
-0.0650055 0.136996 -0.00788185 0.17170236023294752 0.09684397178184756 -0.9803772460741588
-0.0578677 0.104042 -0.0186102 -0.05071205169324809 0.15993419993226565 -0.9858241930005002
-0.0568787 0.10406 -0.0186489 -0.150366018329715 0.2008221974476265 -0.9680188559857572
-0.0558876 0.104087 -0.0189213 -0.2668834387014551 0.28659972788579624 -0.920127070638982
-0.0538972 0.104145 -0.0195691 -0.2792831739483686 0.39885947535988125 -0.8734483543203717
-0.0528856 0.104156 -0.0198053 -0.21161392941459506 0.42454397676851696 -0.8803305950989593
0.00417753 0.0922823 -0.0325433 0.1140647389713053 0.28224936417264496 -0.9525358427626467
-0.0548971 0.104115 -0.019193 -0.3070401854440309 0.3592446929539845 -0.8812885878682944
-0.0779912 0.139819 -0.00526751 -0.46395208440676217 0.1055709919772009 -0.8795471727130788
-0.0778773 0.120773 -0.00663343 -0.4481366541807602 -0.06260435985110735 -0.8917702805696693
-0.0311581 0.17265 -0.0162683 -0.5003438105343881 0.1615899758903898 -0.8506143373772109
0.0111252 0.108699 -0.019265 0.24488252730450633 0.14234586082729245 -0.9590465075929816
0.0151073 0.108635 -0.0180644 0.36407572606995914 0.18687137413893068 -0.9124296987790675
-0.0739419 0.129646 -0.00820737 -0.23968183598450643 0.18904123962230426 -0.9522688838879273
-0.0252176 0.0351344 0.0519405 -0.004074367129203517 -0.9557287384816189 0.29422096793537655
-0.0550232 0.14424 -0.00134547 0.27113831674750505 0.026586091236084627 -0.9621731616211898
-0.0669793 0.134061 -0.00834965 0.07987510157674267 0.07024959503106062 -0.9943263863269832
-0.069891 0.119438 -0.0086356 -0.13431223544393778 -0.15247583716769422 -0.9791380609955181
-0.0738772 0.107826 -0.00969763 -0.48725428768256934 0.3458000247349049 -0.8018763009518931
-0.0727925 0.0893223 -0.0156729 -0.37675369415594034 0.08303145889106552 -0.9225846469426388
-0.0904989 0.148452 0.0245146 0.0 0.0 0.0
-0.0777036 0.174395 -0.0426027 -0.6028502682153721 0.6716838165088559 0.430595407259241
-0.0287307 0.0748955 0.0414817 0.0 0.0 0.0
-0.0845249 0.129883 0.0501389 -0.6179435967032941 0.17735298401172678 0.7659579821083744
-0.0838122 0.128533 0.0508937 -0.6269010501628669 0.041542962890425104 0.7779905240676005
-0.0846144 0.128516 0.0502768 -0.6378467756631825 0.04196040448845532 0.7690193854716842
-0.0245194 0.0879123 0.052427 -0.736190972501679 0.3039201903203623 0.6046944434362425
-0.028277 0.0807444 0.0465032 -0.8815103034730818 -0.22989519522010415 0.4124170026629666
-0.0209967 0.0893299 0.0545201 -0.4611220126092456 0.4117891829789254 0.7860001006798586
-0.0782416 0.0913778 0.0366028 -0.7627880562712961 0.12858299858426422 0.6337355865697754
-0.0865319 0.0910336 0.0265354 -0.8352528898336606 -0.13420125123636423 0.5332378776785395
0.0081342 0.104445 -0.020865 0.24322052201253017 0.07275602407992388 -0.9672385117601727
0.0101376 0.104418 -0.0202461 0.0 0.0 0.0
-0.066894 0.110895 -0.0121462 -0.44757268535412215 0.3205041356673135 -0.8348387810499992
-0.0238144 0.0879301 0.05313 -0.6497998080626769 0.3519441159356597 0.673717706981177
-0.08227 0.0830732 0.0310042 -0.8080321159024114 -0.22118547479320586 0.5460412854453188
-0.0756281 0.167353 -0.024657 -0.6239112928069163 0.7065764463911699 0.3338928332762304
-0.0428236 0.0913841 -0.0227682 -0.2911452442445458 -0.12413446076532779 -0.9485911039031965
-0.0840769 0.0911454 0.0297191 -0.7515507717875893 -0.09758142147967395 0.6524180435943544
-0.0859798 0.13928 0.042828 -0.6762204645073024 0.45001563373480435 0.5832767891625644
-0.0754721 0.103526 0.0362863 -0.6060288554492546 0.13738140333459115 0.7834892318217813
-0.0868865 0.136539 0.0438118 -0.7823378846119375 0.3558549545458981 0.5111894811379198
-0.0884823 0.147207 0.0295866 -0.8015755637728325 0.4292776697651395 0.4161697944388536
-0.0784063 0.0886978 0.0368492 -0.7469427788691299 0.019795896558646595 0.6645935657036575
-0.0747355 0.161794 -0.0126957 -0.5320977958567652 0.7421215910256901 0.40758738913007403
-0.0823671 0.0939609 0.0321712 -0.7555050332381255 -0.05852506440228524 0.6525235333599603
-0.0834343 0.143353 0.0415913 -0.4917968767680562 0.6293396487089252 0.6017203989928478
-0.0729449 0.0805494 0.0386997 -0.5269718370452816 -0.35255125423964595 0.7733099612026044
-0.01605 0.0946681 0.0536372 -0.3174220287300679 0.6683604901638781 0.6727090833821026
-0.0260001 0.0677977 0.0418131 -0.8409069703082889 -0.2564133030920919 0.4765791490238923
-0.0254657 0.0678395 0.0426887 -0.8398277516252209 -0.278041516072058 0.46624270819014196
-0.0250008 0.0678945 0.0436439 -0.8425013949821399 -0.2991625905282694 0.4479878836325411
-0.0245116 0.0679611 0.0445844 -0.8225536882044976 -0.29098789603055386 0.4886015497160134
-0.0239792 0.0680021 0.045464 -0.8174023266946978 -0.2837268919574631 0.5013506628042419
-0.0234564 0.0680424 0.0463484 -0.829018289088954 -0.3047320747753861 0.4688998176147139
-0.0229776 0.0681076 0.0472951 -0.8270155198164865 -0.3199099532391072 0.46228016591804916
-0.0224834 0.0681349 0.0481925 -0.8221166042757132 -0.32824142475159296 0.4651686318435654
-0.0219636 0.0681726 0.0490783 -0.8089493910811443 -0.32500022092657216 0.4898731867199154
-0.0214414 0.0682091 0.0499624 -0.815413998377552 -0.31737085517379 0.4841236944585451
-0.0209485 0.0682779 0.0508919 -0.7970252543607143 -0.31138435087378297 0.5174848113154159
-0.0203653 0.0682964 0.0517114 -0.7307425992964834 -0.3056041213257624 0.6104272066365716
-0.0196654 0.0683158 0.0524244 -0.6134798828330869 -0.2840529957384823 0.736855704307903
-0.0188177 0.0683045 0.0530002 -0.5109464963154287 -0.289080897165222 0.8095467329296919
-0.0179785 0.068344 0.053543 -0.4793658503052044 -0.28618428039707855 0.8296426575428572
-0.087802 0.139216 0.0403868 -0.8080897103502014 0.3599799597843555 0.4662675718723974
-0.023276 0.0768174 0.0529315 -0.5898196379896077 -0.4530573319086856 0.6684697814004692
-0.0279123 0.0793217 0.046185 -0.8461668943283164 -0.2913471922379326 0.44622684871917445
-0.0238077 0.0811303 0.0547388 -0.625928431191996 -0.12963899234144804 0.7690301233958398
-0.0788017 0.0846357 0.0359502 -0.6900253890040038 -0.20233984418244824 0.6949270105457807
-0.0227544 0.0753712 0.0524561 -0.6133036414215468 -0.4245227771208301 0.6660623507785806
-0.0187514 0.0906841 0.0550582 -0.4233927680347686 0.4201961910684343 0.8026043390036193
-0.0521114 0.156091 -0.00406652 -0.5834916422772854 0.004478819036946899 -0.8121067932067744
-0.0578055 0.0883401 -0.0213124 -0.3757411817899448 -0.07886609581893954 -0.9233627148836873
-0.0833044 0.10329 0.0285866 -0.7393135342011106 0.2715125151957967 0.6161951413627955
-0.0853195 0.117662 0.0484974 -0.31663250692572226 -0.33867520362926856 0.8860265018635763
-0.085028 0.100559 0.0275605 -0.7865394951579578 0.2386814137876926 0.569549651276316
-0.0854761 0.132564 0.04817 -0.7002912839792502 0.3461478417649762 0.6243186599999572
-0.0872404 0.149912 0.0282765 -0.6365381088578734 0.6637307815645122 0.3927858011377243
-0.0883155 0.139178 0.0394996 -0.853825059916965 0.30906406915760354 0.41888204570443827
-0.0880478 0.0908955 0.0237752 -0.8979096218593885 -0.14695576990767972 0.4149244662142388
-0.0738208 0.0921589 -0.0148323 -0.4008710245219428 0.11857200879402702 -0.9084289187543939
-0.0842319 0.104575 0.0266516 -0.8068736397779877 0.34263734243111693 0.4812011855795493
-0.086684 0.149909 0.029141 -0.6267757305367649 0.6775122661472434 0.3848757108861658
-0.0770439 0.154813 -0.0101321 -0.9934582642700223 0.02276302203827806 0.1119040749091813
-0.0769455 0.154831 -0.00883158 -0.9913923259899928 0.08569542187388315 0.09898257744678617
-0.023437 0.0753613 0.0517266 -0.712674320555444 -0.44821119466889636 0.5396313906680346
-0.033113 0.162236 -0.0143657 -0.13447610635005178 -0.37459089437331955 -0.9173864173147138
-0.076768 0.156222 -0.00903892 -0.9608023341240916 0.20781412858586024 0.1834997621300839
-0.0239671 0.075324 0.0508435 -0.7803423142964052 -0.4448830249487115 0.4394826124330908
-0.0764449 0.084677 0.0378167 -0.5654263283118155 -0.27901108488615073 0.7761738734088337
-0.0829344 0.129921 0.0513858 -0.570410333568447 0.19485686088986567 0.7979115584590065
-0.0842337 0.150005 0.032317 -0.46653437059325137 0.7550439062393816 0.46071073430726023
-0.0894324 0.117571 0.0455052 -0.6820733588110351 -0.3304314876060613 0.6523733326851109
-0.0267697 0.0750695 0.0452054 -0.7653055909537126 -0.3825393192881654 0.5176591751853103
-0.0853268 0.127125 0.0496018 -0.7074016115262262 -0.08021524008603294 0.7022453098939416
-0.0754447 0.164601 -0.0189193 -0.6163289371237933 0.6936587186886162 0.3727951491786376
-0.0289421 0.0848695 0.0456392 -0.8862735154142852 0.08325747442401793 0.45561765640473034
-0.0668098 0.0880715 -0.0180091 -0.44054445407909254 0.15010324392346194 -0.8850929895461878
-0.0800654 0.121688 0.0502425 -0.6039128771114743 -0.29990960945461065 0.7384737388802153
-0.0861528 0.0951452 0.0274373 -0.8248201124527161 0.032323334840314466 0.5644705343224655
-0.0877008 0.0923103 0.0248018 -0.8799908743642338 -0.06747717348423128 0.4701732575277437
-0.0659221 0.115196 -0.0104247 -0.40177210034629857 0.49505681728944084 -0.7703881664710155
-0.0274598 0.0863801 0.0483431 -0.8800400245554538 0.18629064271819698 0.43683561166195833
-0.0151861 0.168246 -0.0215615 0.0 0.0 0.0
-0.0550158 0.128128 -0.00563226 0.37611031425939984 0.13259963584696394 -0.9170378226010899
-0.0733019 0.081934 0.0390113 -0.5428212535292785 -0.29130423007309997 0.7877099290084016
-0.0741118 0.0819105 0.0384161 -0.5644777761282609 -0.3037674690412818 0.7675220941507462
-0.0749157 0.0818909 0.0378096 -0.5615570637396476 -0.3252762067510107 0.7608213019400675
-0.0757541 0.0819089 0.037226 -0.5494087455910698 -0.3509652441703738 0.7582700229156345
-0.0813944 0.0817284 0.031574 -0.7551006924007547 -0.31933970159715347 0.5725775924010139
-0.0898787 0.112224 0.0169361 -0.5925190235186786 -0.7928118084090203 0.1427257622704827
-0.0593593 0.0651443 0.0328932 -0.22312913778729926 -0.8118865630487395 0.5394938337100821
-0.0738713 0.116445 -0.00712552 -0.3209303394447619 -0.2970588992092551 -0.8993106958245608
-0.0809665 0.133877 -0.00363658 -0.5820751849951945 0.19459489240602046 -0.7895070024149877
-0.0789639 0.13393 -0.00512141 -0.5230562554556649 0.14298946793528444 -0.8402179274975525
-0.0798447 0.116298 -0.00419638 -0.5401054028150296 -0.28362616220595366 -0.7923650383266143
-0.0609217 0.118124 -0.010668 -0.34071634615297175 0.5753998521484099 -0.7435236254563513
-0.0458732 0.104238 -0.0208285 -0.08587321089781433 0.35627011489101046 -0.9304286092364344
-0.0211436 0.168262 -0.0193322 -0.18636215662259908 -0.4681330191177373 -0.8637827406186617
0.0141307 0.108667 -0.0183815 0.3201290653752686 0.18650979277442536 -0.9288333966332164
-0.0470651 0.153179 -0.00606436 -0.31145208440146616 -0.4452768872704539 -0.8394796559683371
-0.0231257 0.165273 -0.0171671 -0.12404364939033394 -0.5492204675057449 -0.8264200210054805
-0.0440699 0.153194 -0.00699527 -0.241207768972486 -0.4602599807301188 -0.8543884142037663
-0.0639063 0.120904 -0.00875525 -0.0018604707700646851 0.043078799596708794 -0.9990699453360713
-0.0698001 0.0894083 -0.0167108 -0.2144818530361514 0.12639740221241466 -0.9685149619041165
-0.0678177 0.0894605 -0.0172539 -0.4127392698637199 0.16369755734024802 -0.8960186408960471
-0.0687967 0.0894213 -0.0168337 -0.27323124593943554 0.1539228628857417 -0.949553810230595
-0.0708134 0.0893817 -0.0163657 -0.30785260256399505 0.08236077121005674 -0.9478625841651624
-0.0717916 0.0893503 -0.0160567 -0.34728555709475084 0.06948396217859658 -0.9351816512492916
-0.0747874 0.0892505 -0.0147771 -0.5078254120570582 0.06174636345981499 -0.8592442827674605
-0.0738068 0.0892836 -0.0151913 -0.4193131498624655 0.08527335189957935 -0.9038279359525395
-0.0490771 0.154645 -0.00592496 -0.44833897196316885 -0.27292618660627105 -0.8511776917210458
-0.0832309 0.120353 0.049216 -0.01213639297094943 -0.037262114028757266 0.9992318263665158
-0.0817321 0.120346 0.0490739 -0.1089129847043328 -0.12426784523298647 0.9862532455733386
-0.0806333 0.120347 0.049427 -0.4936819830250954 -0.19684236913273942 0.8470721228742095
-0.0798668 0.12036 0.0500614 -0.6775175264142599 -0.15670258797471384 0.7186197188524189
-0.0793168 0.102079 0.0331119 -0.6757272475285867 0.2580743852406608 0.6905000352136813
-0.0786087 0.102098 0.0338163 -0.679441081364283 0.2565346691981185 0.6874225632418138
-0.0697701 0.0874139 0.0423816 -0.558494601860063 -0.013930999352289539 0.8293911664288549
-0.0893599 0.133717 0.0406984 -0.9072759935622037 0.25210480651407224 0.3365909060539488
-0.0869443 0.101766 0.0237835 -0.8745934878933598 0.31626897594629294 0.3675053275646638
-0.087877 0.0990467 0.0233782 -0.8982000832109918 0.21237753342367677 0.3848797134386827
-0.065193 0.165273 -0.0595568 -0.5914093681860493 -0.1486671185186891 -0.7925484509436178
-0.0787856 0.109366 0.039802 -0.21288804630623306 -0.9581994932767376 0.19113453592723212
-0.0759173 0.12523 -0.00781198 -0.2775323169865699 -0.10042184679222353 -0.9554534346135898
-0.0874076 0.0990828 0.0243308 -0.8741317242407055 0.18800697284520013 0.4478248617903605
-0.0210879 0.0852798 0.0561484 -0.43220024849269234 0.21491115735272723 0.8757945761696441
-0.0609255 0.122379 -0.00879585 0.060676356092747304 0.1718786691174384 -0.9832477322189582
-0.0428815 0.108469 -0.0193857 0.0 0.0 0.0
-0.0882171 0.135133 0.0423395 -0.8587221609901202 0.2608057741639845 0.44110837487762883
-0.0896944 0.133694 0.0395953 -0.9439776984748535 0.22652746051890496 0.2399821126937893
-0.0849548 0.0952071 0.0290738 -0.7936610639804432 0.03179070144262912 0.6075289843482502
-0.0849504 0.136625 0.0461206 -0.6482454178686818 0.4366913945762587 0.6237615763377066
-0.0905142 0.129614 0.0405398 -0.9154430471992071 0.3064019949310923 0.26092497932715675
-0.0790343 0.0886679 0.0360671 -0.7742814466626073 0.039918979868611495 0.6315811241640374
-0.0864575 0.101794 0.0247295 -0.8482207307766715 0.30170254930874385 0.4353127193424219
-0.028039 0.0849631 0.0475609 -0.9191732202587204 0.07454119479875358 0.3867353118570736
-0.0809226 0.0926448 0.0335946 -0.7057402661669661 -0.04856002135581395 0.7068044998700157
-0.0868952 0.0991223 0.0252196 -0.8519287783971794 0.17482306954495924 0.4936134630392165
-0.0863763 0.0991625 0.0261078 -0.8433487302924139 0.19247182155809622 0.501714577245152
-0.0262745 0.0692227 0.0420449 -0.8505160415756423 -0.25756668873087224 0.45856500507421427
-0.0258209 0.0692735 0.0430043 -0.8582401005914093 -0.2781507301656925 0.4313422087451443
-0.0253439 0.0693349 0.0439513 -0.8400870328801626 -0.26525617030896886 0.47317326773564017
-0.0248173 0.0693751 0.0448313 -0.8216058144082491 -0.24074606255454653 0.5167254774975202
-0.024281 0.069418 0.0457102 -0.8414821354570537 -0.25120138438381256 0.47833636720438977
-0.023822 0.0694685 0.046666 -0.8516522762331936 -0.27190305857986813 0.4480592897393521
-0.0233157 0.0695067 0.0475588 -0.8458734793711512 -0.28874140541890675 0.44847124511305864
-0.0228623 0.06956 0.0485197 -0.8313207527784107 -0.3001827710046409 0.46775646440419394
-0.0223265 0.0696009 0.0493961 -0.8104175565550221 -0.28983310937434453 0.5091366739273326
-0.0217889 0.0696447 0.0502694 -0.8169471235690605 -0.2789937904315022 0.5047374190536116
-0.0212527 0.0696869 0.051144 -0.7989891186387172 -0.2646214517912625 0.5399924773076107
-0.0206697 0.0697068 0.051972 -0.7235478808974324 -0.2471218966420887 0.6445224838970723
-0.0199616 0.0697296 0.0526775 -0.6147092967310455 -0.22861943398299067 0.754894452832792
-0.0191411 0.0697535 0.053261 -0.5193716965821685 -0.24308590073571743 0.8192449485061625
-0.018211 0.0697307 0.0537615 -0.4766467156603829 -0.23660994082214964 0.8466543830597636
-0.0858145 0.0991904 0.0269676 -0.8104353573146283 0.2049885439423343 0.5487934296861727
-0.0729908 0.139888 -0.00698816 -0.28303982056750693 -0.07814546946480116 -0.9559193195951421
-0.0806315 0.139432 0.0474021 -0.41247446621477135 0.5652270351978514 0.7144110955201397
-0.058803 0.0883 -0.0207912 -0.4568475011350511 -0.010473647682203165 -0.8894833688219744
-0.0809803 0.104706 0.0304576 -0.6885717540781028 0.24900869623392907 0.681075332606962
-0.0816857 0.104685 0.0297488 -0.6995081449862336 0.2699882181505021 0.6616605754900585
-0.0748011 0.0878022 -0.0147955 -0.5570778394056517 0.024210965112032346 -0.830107288253437
-0.0829241 0.126549 -0.00467577 -0.42687640320115267 -0.04949497338199539 -0.9029544750428797
-0.0882017 0.0949941 0.0238463 -0.903074842914565 0.03597830768824179 0.4279735850151547
-0.0284216 0.0792864 0.045297 -0.8504906870741246 -0.2649498421384697 0.4543865890967552
-0.0862816 0.117641 0.0480424 -0.4310697721294666 -0.34078331141509044 0.8354912245004225
-0.0748092 0.0790936 0.0363823 -0.6044057192652028 -0.41548082315447926 0.6797568772071301
-0.0859393 0.101835 0.0256124 -0.8229167714490266 0.285021560243039 0.49149842061245147
-0.0619845 0.128209 -0.0080954 0.23330674216804256 0.1019192203291875 -0.9670472773274453
-0.0794763 0.0926775 0.0349659 -0.7097459464385991 0.08609992298735732 0.6991762973496372
-0.0807745 0.102028 0.0317433 -0.6713117370368992 0.2616750628174842 0.6934455373105856
-0.0735138 0.0874308 0.0404487 -0.49800745126748913 -0.18074588219480453 0.8481270568444809
-0.0182505 0.0920203 0.0545129 -0.4339415364964718 0.48347787834827544 0.760226205843321
-0.0906893 0.11752 0.0439252 -0.7655061994361226 -0.3414436671443978 0.5453590384250075
-0.0765631 0.160404 -0.0136187 -0.8726317507185607 0.4165175779737275 0.25500379384777727
-0.083716 0.087071 0.0295098 -0.883063014005451 -0.09700624200897297 0.4591181790202881
-0.0852334 0.0992128 0.0278144 -0.7946361347838686 0.20165273813757076 0.5726164392482751
-0.0853944 0.101863 0.0264831 -0.8016326879818411 0.2773118161382294 0.529606637221556
-0.0847959 0.101901 0.0272869 -0.772774625281965 0.2632049235142787 0.5775314249096416
-0.0765081 0.156243 -0.00790412 -0.9199991875766971 0.32320853330888766 0.22167033823796795
-0.0878947 0.131105 0.044958 -0.8569486267307095 0.19802312478552864 0.4758422986605184
-0.0727804 0.0887809 0.0411113 -0.4588644256654943 -0.1306979007201247 0.8788409967713321
-0.0850789 0.151288 0.0289026 -0.5151823782329611 0.7793683660666824 0.35661192791714114
-0.0722033 0.152534 -0.0417656 -0.9760964877166772 0.09388207536120671 -0.19601480197433868
-0.0818952 0.134036 0.0502533 -0.5003721755977573 0.43535191376767957 0.7483958825824647
-0.0827485 0.134001 0.0496722 -0.5360555092444961 0.43071809467595873 0.7260347195054352
-0.0787829 0.0926997 0.035689 -0.7378709723723471 0.1370839491827992 0.6608739811845635
-0.0582936 0.157998 0.00361947 -0.7971665089330052 0.5749663172736286 -0.18422619530448428
-0.0841797 0.101927 0.0280813 -0.7643488373561278 0.26836583465977626 0.5863025103303732
-0.0719584 0.0942006 0.0415089 -0.4262750379807032 0.11763421282450219 0.8969123613640909
-0.0844404 0.100576 0.0283951 -0.7681276382968398 0.24426151864926485 0.5918751910594616
-0.0843685 0.105877 0.0253348 -0.8402840217974767 0.3622581810657624 0.4033506823631055
-0.0289729 0.083488 0.0456837 -0.8950417599985564 -0.006682847119149299 0.4459322677414909
-0.0888148 0.144497 0.0313918 -0.902151781476526 0.30440882024348603 0.30570808516736914
-0.0714887 0.0860678 0.0412957 -0.4616245649359316 -0.17237166550634817 0.8701670931368753
-0.0590273 0.134027 -0.00648451 0.3897865206832975 0.1780820610004157 -0.9035226880623716
-0.0236613 0.0852675 0.0544729 -0.6710476914515233 0.23942813397890486 0.7016902197244599
-0.0697873 0.0819627 0.0411407 -0.4731280510406516 -0.2812100140183977 0.8349076447932712
-0.0766415 0.100814 0.0361238 -0.5728649475903004 0.24650285044908307 0.781704609518736
-0.0752643 0.0941545 0.0391883 -0.6374134212335955 0.1396103418313184 0.7577684889760363
-0.0765269 0.165965 -0.0237196 -0.7744818433251824 0.5600545472537641 0.2941373462517277
-0.0230753 0.078299 0.0540943 -0.5601559735338548 -0.4242160192914925 0.7115237552540459
-0.0271001 0.0779439 0.0468281 -0.8429026244719835 -0.3271495614317874 0.42718652847817135
-0.0284285 0.0821494 0.0466355 -0.8985385262592555 -0.08661154790765901 0.4302638220869663
-0.0764226 0.102162 0.0358668 -0.5869350424888184 0.23337247165499622 0.7752706271827192
-0.0518036 0.0898543 -0.0220029 0.15464663798737752 -0.06218119318706076 -0.9860111138182137
-0.0508059 0.0898498 -0.0218327 0.17861795842081993 -0.0729256434591539 -0.9812122479135932
-0.0478093 0.0898718 -0.0219802 -0.09946690398394069 0.08324993652859565 -0.9915522089531315
-0.0468126 0.0898791 -0.022022 -0.054845218481669775 0.08907108209806683 -0.9945141247582044
-0.0488103 0.0898531 -0.0217755 -0.10544431509991338 0.03546781377959494 -0.9937924987636031
-0.0498078 0.0898419 -0.0216876 -0.012451506514985273 -0.01852937016112116 -0.9997507801582051
-0.0758056 0.0891863 -0.013912 -0.6533587944176251 0.01506832308921828 -0.7568984287184287
-0.0418656 0.104235 -0.0206965 0.1410304623000026 0.19990039738254078 -0.9696134486638218
-0.0758953 0.12228 -0.00740649 -0.30359998374711505 -0.04669558737808625 -0.9516546495384589
-0.0839351 0.123564 -0.00377373 -0.43213681721450625 -0.03373572686375423 -0.9011768261227597
-0.077893 0.12518 -0.00689701 -0.5028037928950915 -0.06557093050441348 -0.8619099714721342
-0.0398915 0.109923 -0.0189257 -0.09871563856849461 0.4396043172311618 -0.8927503945525527
-0.0719068 0.110755 -0.00961867 -0.47721640620233485 0.35515438478688105 -0.8038220354145439
-0.0338786 0.104305 -0.0212068 -0.2649980539547611 0.4048987430809018 -0.8751188714978642
-0.034872 0.104274 -0.0209307 -0.20801155659766135 0.3815531505615714 -0.9006377660404635
-0.0368662 0.104233 -0.0205194 -0.17301922272041453 0.2828952978868804 -0.9434164504622106
-0.0639176 0.122377 -0.00881224 0.03390508802431646 -0.02498387925544538 -0.9991127317692496
-0.0358716 0.10426 -0.0206916 -0.1801885237135453 0.3288463464274672 -0.927034075082054
-0.0378682 0.104226 -0.0203027 -0.057406757180358384 0.20417916443442452 -0.9772488593193117
-0.0846211 0.0992422 0.0286106 -0.7756868015268289 0.19725208392534588 0.5995011270416314
-0.0748342 0.156367 -0.00257451 -0.5372071392333191 0.7971716488493965 0.2755464603791668
-0.0916834 0.116094 0.0407438 0.0 0.0 0.0
-0.0760927 0.0805105 0.0361956 -0.5761473499837078 -0.42750626036918926 0.6966294771626463
-0.0769895 0.0790529 0.034321 -0.5740566688255747 -0.50514602542133 0.6444272138712932
-0.0198767 0.105865 -0.0225965 -0.059318007024796914 0.20574552867353968 -0.9768060971725411
-0.0210999 0.0811322 0.0562803 -0.4460197106776626 -0.16238291952490727 0.8801694184266922
-0.0691615 0.0832998 0.0419252 -0.5169118652318682 -0.2684809943043296 0.8128468978103255
-0.0735939 0.077695 0.036626 -0.6049601297288332 -0.4016497082946218 0.6875323652493158
-0.087976 0.141871 0.0376917 -0.8149242426084775 0.4487246438404954 0.36680331625984497
-0.0891661 0.132396 0.0419315 -0.8663570144876076 0.2689562250207073 0.420818336661712
-0.0840037 0.0992695 0.0294026 -0.75749706471553 0.21361068348307152 0.6169024824469838
-0.0833513 0.099287 0.0301656 -0.7300272156632853 0.2193949502039645 0.6472450233226293
-0.0826594 0.0993103 0.0308836 -0.69470487474478 0.2456063504571105 0.6760640928351235
-0.0819554 0.0993316 0.0315904 -0.6983415778450408 0.25985047596039423 0.6669308590821507
-0.081252 0.0993542 0.0322994 -0.6742359597614346 0.2740109395202864 0.6858016299104188
-0.0242491 0.0796961 0.0538111 -0.693461227028061 -0.30726560205778747 0.6516896319574229
-0.0262775 0.073604 0.0447421 -0.7842692983645414 -0.37147916857816826 0.49691538007518216
-0.0760841 0.104861 0.0354581 -0.6869832101106205 0.0541461104998991 0.7246532051566735
-0.0790692 0.0804499 0.033529 -0.6434346660611661 -0.44299212301669877 0.624299454954042
-0.0852337 0.104506 0.0248257 0.0 0.0 0.0
-0.0861539 0.149931 0.0300167 -0.6079971897515055 0.6901192773040622 0.3925236303047126
-0.0841802 0.136658 0.046769 -0.5926655099812627 0.460687083663379 0.660692821380996
-0.0747288 0.102175 0.0369848 -0.5198105680112637 0.19860719785639297 0.8308743312580061
-0.0764401 0.163184 -0.0180705 -0.7690319920350793 0.5749684678567767 0.2792866917649113
-0.071459 0.151188 -0.0433221 0.0 0.0 0.0
-0.0805231 0.0993639 0.0329828 -0.6766589725558794 0.2689588733619779 0.6854150270452766
-0.0756445 0.156326 -0.00458549 -0.78057366495204 0.5931223035839042 0.19725791891496663
-0.0270556 0.0706113 0.0413767 -0.8441793376334158 -0.26179145818973826 0.46778892497759933
-0.0265661 0.0706408 0.0422848 -0.8567761703019925 -0.27187059014445425 0.4382019810739762
-0.0261195 0.0706905 0.0432458 -0.854859234005641 -0.26912996811499873 0.44360427218153414
-0.0256136 0.0707601 0.0441795 -0.8227526961200509 -0.24812013790955845 0.5113847848645178
-0.0250553 0.0707727 0.0450037 -0.8221346714511857 -0.24558873602297815 0.5135959060745006
-0.0245442 0.0708437 0.0459353 -0.8557513123080058 -0.26665047836437783 0.44338156690504665
-0.0240991 0.0708914 0.0469009 -0.859128203142389 -0.2705147023078552 0.4344197582990698
-0.0236559 0.0709438 0.0478646 -0.8590928346400374 -0.2749131862668636 0.43172009622757446
-0.0231748 0.0709692 0.0487695 -0.8317631768370483 -0.27326939694678576 0.4832120180110188
-0.0226305 0.0710127 0.0496427 -0.8124406369481528 -0.2841983000030085 0.5090889290788788
-0.0220941 0.0710555 0.0505203 -0.8060168308346838 -0.27985705876395456 0.5215523895748165
-0.0215406 0.0711033 0.0513847 -0.7849803501573257 -0.25846271209452654 0.5630300847411479
-0.0209282 0.0711316 0.0521839 -0.7079818549074884 -0.23550263722613568 0.6658079309990886
-0.0201874 0.0711262 0.0528634 -0.6284820794595468 -0.21552536367881542 0.7473681110465699
-0.0193751 0.0711448 0.0534686 -0.5551947583858637 -0.22232533096640866 0.8014550689037653
-0.0185051 0.0711438 0.0540217 -0.4831374775737579 -0.24513227484905692 0.8405286108104786
-0.0176031 0.0711548 0.0545194 0.0 0.0 0.0
-0.0798193 0.0993879 0.0336913 -0.6722524752307001 0.2651787421039381 0.6911995690698672
-0.0846322 0.139314 0.044315 -0.5748174026614641 0.5273491727704198 0.6256898621328957
